ply
format ascii 1.0
element vertex 624
comment vertices
property float x
property float y
property float z
property uchar red
property uchar green
property uchar blue
end_header
-0.0603241771459579468 -0.0280624590814113617 0.726992666721343994 31 27 21
-0.0625897720456123352 -0.0224691946059465408 0.771432340145111084 167 142 106
-0.0629125013947486877 -0.0232399236410856247 0.768848896026611328 183 166 112
-0.0566208139061927795 -0.020405106246471405 0.769705891609191895 216 199 178
-0.0426080748438835144 -0.0482207760214805603 0.695557713508605957 103 98 92
-0.0443366989493370056 -0.0436747446656227112 0.682812511920928955 134 146 129
-0.0636060014367103577 -0.025094965472817421 0.766208112239837646 168 119 74
-0.0631714984774589539 -0.0274083930999040604 0.767195701599121094 159 140 108
-0.0812240839004516602 0.0384358242154121399 0.735597133636474609 103 97 72
-0.0812722817063331604 0.0398219302296638489 0.735543966293334961 101 93 70
-0.0797004476189613342 0.0370486453175544739 0.729448795318603516 99 63 72
-0.0621667206287384033 -0.00835034623742103577 0.734553873538970947 217 162 91
-0.0609027668833732605 -0.0097876107320189476 0.735747456550598145 212 142 72
-0.0689537450671195984 0.00117552280426025391 0.770717501640319824 99 82 62
-0.0694165974855422974 -0.00146245397627353668 0.759974479675292969 168 106 69
-0.0734329149127006531 -0.000534312799572944641 0.75969851016998291 203 178 169
-0.0653944313526153564 -0.00920845940709114075 0.717639803886413574 1 214 192
-0.0682873651385307312 -0.00928953103721141815 0.71863090991973877 16 0 0
-0.0685249418020248413 -0.00498699955642223358 0.72044074535369873 236 166 125
-0.0673605203628540039 0.000118173658847808838 0.771399438381195068 97 75 56
-0.0664149373769760132 0.00370891205966472626 0.770540773868560791 90 68 41
-0.0668357014656066895 0.0134187731891870499 0.770186245441436768 90 72 66
-0.0693682208657264709 0.01139804907143116 0.771334707736968994 97 74 55
-0.0651920139789581299 0.0116962175816297531 0.772670090198516846 21 6 26
-0.0636373534798622131 -0.0073113609105348587 0.755959868431091309 228 171 138
-0.0692927837371826172 -0.0132619459182024002 0.769315898418426514 158 136 81
-0.0680608898401260376 -0.00648550502955913544 0.762664556503295898 198 143 81
-0.0670119524002075195 0.0212415773421525955 0.768574357032775879 57 48 19
-0.0659534633159637451 -0.0437072440981864929 0.75591355562210083 71 49 31
-0.0688091814517974854 -0.0114988656714558601 0.767462849617004395 192 118 85
-0.0557450130581855774 -0.00503452494740486145 0.718935370445251465 248 209 154
-0.0534192994236946106 -0.0129425134509801865 0.700536847114562988 60 192 58
-0.0552214160561561584 -0.00878742896020412445 0.716946005821228027 247 223 129
-0.0582174882292747498 -0.0575563088059425354 0.706782639026641846 106 114 94
-0.0594601035118103027 -0.0114919105544686317 0.737368643283843994 197 108 67
-0.0594310909509658813 -0.0135375894606113434 0.736632227897644043 207 119 62
-0.0666963681578636169 -0.0190381910651922226 0.766593217849731445 144 94 46
-0.066178150475025177 -0.0213096663355827332 0.767180681228637695 147 97 41
-0.0663558691740036011 -0.0175362005829811096 0.767256796360015869 169 74 0
-0.057039991021156311 -0.058673955500125885 0.760830700397491455 54 29 21
-0.0584885254502296448 -0.052186235785484314 0.758950471878051758 63 52 36
-0.0427773520350456238 -0.0410600379109382629 0.67948305606842041 156 144 133
-0.0485404506325721741 -0.0398155562579631805 0.680015385150909424 161 148 126
-0.0831335783004760742 0.0285440068691968918 0.733625829219818115 86 70 52
-0.082077905535697937 0.0294966194778680801 0.734440028667449951 84 69 50
-0.0630599856376647949 0.0200476143509149551 0.755288898944854736 79 107 80
-0.0659324377775192261 0.0187213551253080368 0.753327250480651855 12 14 9
-0.0677187442779541016 0.0207752902060747147 0.753786563873291016 23 21 5
-0.0708174854516983032 -0.0256870798766613007 0.710281848907470703 161 153 126
-0.0770352929830551147 -0.0248205531388521194 0.715710997581481934 237 231 216
-0.0681390613317489624 -0.0242560412734746933 0.714200913906097412 99 89 67
-0.0560751259326934814 -0.0407262146472930908 0.732853591442108154 23 12 9
-0.0561552941799163818 -0.0388578884303569794 0.729304254055023193 17 13 4
-0.0662682130932807922 -0.0126918936148285866 0.720173180103302002 38 4 0
-0.0579803213477134705 -0.0512392967939376831 0.719402432441711426 66 48 50
-0.0748595893383026123 -0.0176484584808349609 0.750534176826477051 199 177 166
-0.0706743896007537842 -0.0170758776366710663 0.755890250205993652 178 127 75
-0.0615142062306404114 -0.0300756674259901047 0.741475701332092285 19 15 5
-0.0518622174859046936 -0.0653504207730293274 0.762157559394836426 99 83 62
-0.0709408670663833618 0.0739227011799812317 0.748692154884338379 106 99 71
-0.0536189451813697815 -0.0643635392189025879 0.760275483131408691 51 14 0
-0.0562582537531852722 -0.0606058835983276367 0.76097029447555542 73 35 25
-0.0561954900622367859 -0.0332951396703720093 0.731003999710083008 17 17 10
-0.0728278830647468567 0.0355036705732345581 0.750716686248779297 14 5 10
-0.0801132693886756897 -0.0195388756692409515 0.708826661109924316 132 128 120
-0.0795290917158126831 -0.0189067739993333817 0.713466107845306396 70 52 48
-0.0559245869517326355 -0.0589654445648193359 0.756236076354980469 60 46 35
-0.0561434179544448853 -0.0636463239789009094 0.761061191558837891 103 36 0
-0.0740472078323364258 0.0182310845702886581 0.731948435306549072 8 0 0
-0.075493156909942627 0.0197758693248033524 0.721879184246063232 52 46 23
-0.0654692202806472778 -0.0207447409629821777 0.722308933734893799 42 34 24
-0.0866813883185386658 -0.00743441376835107803 0.709290027618408203 217 201 203
-0.0800855085253715515 -0.0167088694870471954 0.714803338050842285 59 55 31
-0.0804877877235412598 -0.0143488813191652298 0.715357124805450439 76 59 39
-0.0371853038668632507 -0.0615346580743789673 0.804257512092590332 252 234 212
-0.0375818982720375061 -0.0586864873766899109 0.806127667427062988 252 234 210
-0.0404052659869194031 -0.0615082681179046631 0.800756514072418213 252 235 212
-0.0400492846965789795 -0.0622995197772979736 0.797857463359832764 254 238 214
-0.0409745648503303528 -0.05983000248670578 0.800254762172698975 253 236 215
-0.0802896320819854736 -0.0094963517040014267 0.719565510749816895 225 212 187
-0.0786377787590026855 -0.0035045575350522995 0.737456679344177246 116 95 26
-0.082812771201133728 -0.00737558864057064056 0.726365029811859131 142 124 110
-0.0642719641327857971 0.000239500775933265686 0.740874826908111572 220 168 103
-0.0687676072120666504 0.0290830638259649277 0.783433437347412109 69 58 43
-0.0732131004333496094 0.031029311940073967 0.769104361534118652 46 32 20
-0.0766708552837371826 -0.000355286523699760437 0.736493289470672607 193 173 136
-0.0752261653542518616 -0.00394888594746589661 0.741462767124176025 211 176 153
-0.0717218220233917236 -0.00347862578928470612 0.737285614013671875 212 183 147
-0.0686755925416946411 -0.0362273044884204865 0.704810261726379395 154 126 120
-0.0709947347640991211 -0.040419943630695343 0.70392155647277832 115 79 19
-0.0597906634211540222 -0.0457090586423873901 0.721306383609771729 77 57 54
-0.0663970708847045898 0.00318272411823272705 0.762394309043884277 81 73 64
-0.0671231821179389954 0.00122193805873394012 0.764042556285858154 80 57 44
-0.0675491020083427429 0.00807734020054340363 0.756618499755859375 82 73 83
-0.0842303484678268433 0.0130287539213895798 0.715187549591064453 142 115 111
-0.0820913985371589661 0.00955273397266864777 0.723601698875427246 77 64 43
-0.0828626826405525208 0.0117576587945222855 0.72217404842376709 93 75 58
-0.0760822370648384094 0.0541037321090698242 0.734816670417785645 93 70 53
-0.0808697044849395752 -0.0086960354819893837 0.716669142246246338 82 96 48
-0.0815154761075973511 -0.00657392945140600204 0.716574609279632568 104 104 80
-0.0792838931083679199 -0.00652595050632953644 0.71001589298248291 186 175 171
-0.0759863853454589844 0.0210797619074583054 0.722269237041473389 56 46 27
-0.0687794238328933716 0.0567340105772018433 0.772223889827728271 0 38 0
-0.0822415128350257874 0.0105936396867036819 0.725162327289581299 73 61 48
-0.076070152223110199 0.00976677052676677704 0.735747933387756348 154 111 81
-0.0675509348511695862 -0.0108961286023259163 0.718810439109802246 24 1 0
-0.0693546980619430542 -0.00776423420757055283 0.718653857707977295 20 0 0
-0.0670339390635490417 -0.0164687875658273697 0.716144323348999023 29 21 23
-0.0668688490986824036 -0.0147936195135116577 0.768542349338531494 152 95 39
-0.0632854178547859192 0.0162826124578714371 0.717985093593597412 194 210 153
-0.0606439709663391113 -0.00755796674638986588 0.719208180904388428 242 224 144
-0.086240723729133606 0.00898163206875324249 0.714622676372528076 217 218 191
-0.0847692638635635376 0.00612551160156726837 0.712433934211730957 161 142 129
-0.0867405831813812256 0.00698743760585784912 0.714335978031158447 210 207 158
-0.0665326043963432312 0.0189476143568754196 0.735976219177246094 60 21 3
-0.034508831799030304 -0.0694301947951316833 0.802497327327728271 251 231 198
-0.0153729338198900223 -0.0948638245463371277 0.806917011737823486 235 195 144
-0.00629890337586402893 -0.0961122363805770874 0.810357451438903809 251 225 171
-0.0081328805536031723 -0.0980752483010292053 0.814039170742034912 246 219 174
-0.00802773796021938324 -0.1060962975025177 0.805731296539306641 205 156 138
-0.00573925673961639404 -0.102861911058425903 0.816984355449676514 240 209 161
-0.00767141766846179962 -0.102842628955841064 0.815542340278625488 239 201 149
-0.0143980886787176132 -0.0999640151858329773 0.804670870304107666 218 184 136
-0.0128154661506414413 -0.102741621434688568 0.801775038242340088 194 149 119
-0.0131897684186697006 -0.0993830710649490356 0.807728171348571777 232 192 139
-0.0102366078644990921 -0.101159632205963135 0.797749876976013184 178 121 79
-0.0038938913494348526 -0.103457830846309662 0.812791585922241211 231 187 134
-0.0152775254100561142 -0.0989204719662666321 0.796542167663574219 199 153 112
-0.0229250360280275345 -0.0914934128522872925 0.800118803977966309 226 192 142
-0.00562331452965736389 -0.0664387792348861694 0.827030420303344727 236 176 134
-0.0224348437041044235 -0.0889431685209274292 0.799658060073852539 235 196 146
-0.00870285741984844208 -0.0943260788917541504 0.81330108642578125 248 223 181
-0.00978387333452701569 -0.0962044745683670044 0.815788149833679199 245 218 172
-0.0075754895806312561 -0.096171945333480835 0.814870834350585938 244 223 180
0.0192248839884996414 -0.0672349706292152405 0.846184074878692627 157 70 35
0.0170326046645641327 -0.0652545467019081116 0.847017347812652588 149 54 41
-0.00326829217374324799 -0.0792572349309921265 0.834219992160797119 243 208 166
-0.0193347614258527756 -0.0711031705141067505 0.811928212642669678 240 199 149
-0.0211471300572156906 -0.0702376365661621094 0.811157941818237305 243 205 154
-0.0182526614516973495 -0.0729167312383651733 0.812229275703430176 237 195 141
-0.00403754226863384247 -0.0773081034421920776 0.834642529487609863 244 210 166
0.00293688848614692688 -0.0744349956512451172 0.833602011203765869 244 200 167
0.00238115526735782623 -0.0864592939615249634 0.824924886226654053 237 198 149
0.00287522375583648682 -0.0830463618040084839 0.828345000743865967 232 187 136
-0.0305600147694349289 -0.0618542656302452087 0.808902561664581299 252 229 197
-0.0342225730419158936 -0.0568096116185188293 0.810302257537841797 252 235 209
-0.0339969620108604431 -0.0481591559946537018 0.816196620464324951 249 229 198
-0.0310414750128984451 -0.0472901538014411926 0.817954897880554199 248 225 188
-0.0326245278120040894 -0.0486077070236206055 0.816816031932830811 251 229 195
-0.0179422963410615921 -0.0774350762367248535 0.809377133846282959 235 192 137
-0.014957064762711525 -0.0787298828363418579 0.81030350923538208 233 189 138
-0.0125207509845495224 -0.075890861451625824 0.815660238265991211 232 187 131
-0.0283631626516580582 -0.0439562425017356873 0.819822967052459717 245 216 171
-0.0229878779500722885 -0.0463447719812393188 0.821522057056427002 240 199 152
-0.0213195439428091049 -0.0467828139662742615 0.822888553142547607 238 192 143
-0.0324594080448150635 -0.0431414097547531128 0.819161951541900635 250 223 187
-0.0249669570475816727 -0.0443314723670482635 0.820482313632965088 237 198 151
-0.0354926660656929016 -0.0411669313907623291 0.817494034767150879 250 229 197
-0.0342345982789993286 -0.0402089431881904602 0.818240702152252197 250 228 191
-0.0321629345417022705 -0.0396867655217647552 0.819000184535980225 248 225 186
-0.0282415803521871567 -0.0413991659879684448 0.819600760936737061 245 214 169
-0.0285215098410844803 -0.0565187931060791016 0.814364969730377197 249 226 190
-0.0268215034157037735 -0.0570961758494377136 0.815281152725219727 251 220 182
-0.0251139756292104721 -0.0577195659279823303 0.815993726253509521 247 216 175
-0.0273569319397211075 -0.0617934167385101318 0.811056315898895264 251 227 187
-0.0274443682283163071 -0.0554331615567207336 0.815539956092834473 249 222 185
-0.0261791255325078964 -0.0544493719935417175 0.817184388637542725 249 218 177
-0.0276775378733873367 -0.0540134012699127197 0.816151618957519531 249 225 188
-0.0290471334010362625 -0.0494492277503013611 0.818304479122161865 251 221 182
-0.0159816797822713852 -0.0904619991779327393 0.813642442226409912 238 201 149
-0.0102375242859125137 -0.0682576373219490051 0.824855625629425049 226 176 126
-0.0135411527007818222 -0.0711739733815193176 0.816787421703338623 231 184 131
-0.00301793217658996582 -0.0757318958640098572 0.835945725440979004 244 211 168
-0.00760642997920513153 -0.081735759973526001 0.828150391578674316 238 203 152
-0.0220826547592878342 -0.088046930730342865 0.800684690475463867 232 196 148
-0.0218139570206403732 -0.0865775123238563538 0.800710320472717285 239 198 145
-0.00890659727156162262 -0.0680356398224830627 0.830677032470703125 226 175 125
-0.0101373475044965744 -0.0759514197707176208 0.831875622272491455 237 200 150
-0.0102889817208051682 -0.0741905197501182556 0.832844555377960205 237 198 150
-0.0220808219164609909 -0.0693546831607818604 0.810481011867523193 241 203 156
-0.0206703674048185349 -0.0686016008257865906 0.812048673629760742 243 203 153
-0.0238378327339887619 -0.0675513818860054016 0.81100618839263916 244 211 166
-0.0231905337423086166 -0.0601360052824020386 0.815366625785827637 247 213 168
0.0200189631432294846 -0.108403414487838745 0.815238714218139648 186 132 84
0.0128650730475783348 -0.08388567715883255 0.839302301406860352 199 140 88
0.0163674019277095795 -0.0816589072346687317 0.831091821193695068 202 133 90
0.0171387828886508942 -0.0834413617849349976 0.828055381774902344 214 153 100
-0.00260539725422859192 -0.108646377921104431 0.810710728168487549 165 101 107
0.000557443127036094666 -0.100179731845855713 0.811254501342773438 240 202 140
0.016982540488243103 -0.0951213836669921875 0.816992461681365967 229 184 126
0.00492187961935997009 -0.105570249259471893 0.816884636878967285 225 182 131
0.00627461820840835571 -0.108494468033313751 0.815576910972595215 195 131 88
0.00892828591167926788 -0.106473729014396667 0.816698431968688965 207 159 110
-0.0701889172196388245 0.0463965460658073425 0.78928065299987793 51 41 33
-0.0651311948895454407 0.0538522452116012573 0.788801848888397217 63 59 41
-0.0663709789514541626 0.0482160896062850952 0.786571860313415527 47 30 23
-0.0690867975354194641 0.0538992881774902344 0.780389666557312012 71 50 39
-0.0681134313344955444 0.0512523800134658813 0.781061530113220215 61 61 38
-0.0817216262221336365 0.000263288617134094238 0.714056789875030518 111 105 93
-0.0723804235458374023 0.0188577082008123398 0.763385176658630371 53 44 30
-0.0629617124795913696 0.0851019397377967834 0.732727706432342529 109 82 65
-0.00757446326315402985 0.104872226715087891 0.672742247581481934 99 139 83
0.0141914933919906616 0.101983465254306793 0.830834805965423584 19 19 13
-0.0053796134889125824 0.100174084305763245 0.82929915189743042 16 10 7
-0.00945374183356761932 0.102860249578952789 0.82777559757232666 42 38 31
-0.00858587212860584259 0.106649607419967651 0.823994874954223633 19 11 0
-0.014477970078587532 0.102364696562290192 0.829259991645812988 39 32 26
-0.0184844527393579483 0.102201387286186218 0.819641232490539551 40 31 23
-0.0157751273363828659 0.0999750271439552307 0.832162141799926758 48 41 34
-0.0109296198934316635 0.108720749616622925 0.823989927768707275 31 24 16
-0.0116566848009824753 0.107437700033187866 0.823841333389282227 35 30 22
0.0246552601456642151 0.0866290554404258728 0.833091974258422852 223 164 109
0.0269857347011566162 0.0824610516428947449 0.831095635890960693 232 175 117
0.0212556309998035431 0.0839087292551994324 0.832482516765594482 234 177 121
0.00884306151419878006 0.0973285660147666931 0.83229219913482666 26 15 12
0.00874488241970539093 0.0930080488324165344 0.833160936832427979 139 77 50
0.00796454306691884995 0.0937679409980773926 0.834919273853302002 102 62 41
0.00656656548380851746 0.0858281925320625305 0.833926260471343994 224 167 105
0.0130602428689599037 0.0977723002433776855 0.831201791763305664 32 15 12
0.00428305007517337799 0.0920636430382728577 0.834150075912475586 145 94 53
0.0119156772270798683 0.0936733633279800415 0.832935214042663574 117 75 47
0.0129261454567313194 0.0965064689517021179 0.833838105201721191 71 42 25
0.0164023395627737045 0.0946372821927070618 0.833633542060852051 105 68 44
-0.0116096083074808121 0.0926939621567726135 0.825646817684173584 15 0 0
7.23563134670257568e-05 0.0922833830118179321 0.833121895790100098 105 58 29
0.0106852510944008827 0.0989834219217300415 0.831510663032531738 19 12 6
0.0013073403388261795 0.0714407786726951599 0.83428877592086792 241 202 150
0.00272955559194087982 0.0685316324234008789 0.834466516971588135 242 203 150
0.00332635454833507538 0.074815407395362854 0.833373665809631348 243 200 143
0.00290012545883655548 0.0766729041934013367 0.833462536334991455 238 194 138
0.00148754753172397614 0.123442217707633972 0.812376976013183594 11 0 11
-0.0184994805604219437 0.131159976124763489 0.754267454147338867 45 12 31
-0.0459510684013366699 0.0589898377656936646 0.826488912105560303 75 66 56
-0.0500557944178581238 0.0659813433885574341 0.812665224075317383 79 70 55
-0.0482075735926628113 0.062129192054271698 0.823865234851837158 97 85 71
-0.04579152911901474 0.0684242472052574158 0.822888970375061035 88 77 66
-0.0410437285900115967 0.0749310925602912903 0.814220964908599854 23 0 0
-0.0567934438586235046 0.0696254223585128784 0.803959071636199951 35 22 16
-0.0603211298584938049 0.0730787664651870728 0.801830649375915527 69 61 50
-0.0636488571763038635 0.0726927295327186584 0.796998023986816406 89 84 73
-0.0538185834884643555 0.0595470443367958069 0.810624361038208008 80 61 47
-0.0541479215025901794 0.0604927316308021545 0.805596828460693359 2 0 0
-0.0522997155785560608 0.0594081282615661621 0.813203394412994385 64 49 46
-0.0589353963732719421 0.0581016764044761658 0.815254449844360352 119 107 92
-0.0588689744472503662 0.0602544695138931274 0.809691011905670166 61 54 41
-0.0552849173545837402 0.0567166581749916077 0.81078261137008667 74 56 41
-0.0587361380457878113 0.0576514899730682373 0.811498701572418213 107 97 87
-0.0345635935664176941 0.0891220048069953918 0.821295738220214844 51 48 27
-0.0344247594475746155 0.0884733274579048157 0.823346555233001709 62 48 40
-0.0297091808170080185 0.0770762637257575989 0.830116331577301025 22 15 4
-0.0245856847614049911 0.0779388025403022766 0.821619927883148193 47 21 13
-0.0258165318518877029 0.0767360106110572815 0.821098148822784424 43 20 10
-0.0323816239833831787 0.0730784758925437927 0.826517641544342041 13 8 2
-0.0299040582031011581 0.0772640258073806763 0.827468752861022949 19 8 1
-0.0327837094664573669 0.0768102630972862244 0.831248879432678223 71 62 51
-0.0270187165588140488 0.0720442011952400208 0.822552680969238281 90 45 25
-0.0320419594645500183 0.0796685963869094849 0.824011802673339844 71 55 48
-0.034380890429019928 0.078174985945224762 0.821381926536560059 85 80 69
-0.0332666262984275818 0.0745730176568031311 0.824176669120788574 66 64 49
-0.033492550253868103 0.0792724117636680603 0.821971714496612549 80 66 62
-0.0381417423486709595 0.0786956325173377991 0.833842039108276367 60 48 39
-0.0368906706571578979 0.0869907066226005554 0.816592097282409668 67 50 46
-0.0284903440624475479 0.0871545523405075073 0.821687221527099609 73 65 54
-0.0309864748269319534 0.0832616761326789856 0.822068572044372559 83 65 55
-0.0403527095913887024 0.0804517790675163269 0.820596873760223389 39 28 15
-0.0399584025144577026 0.0795697718858718872 0.825299680233001709 71 63 51
-0.0454507619142532349 0.0834126919507980347 0.811983346939086914 115 108 90
-0.0427168086171150208 0.0682555735111236572 0.826996922492980957 60 57 42
-0.0418862253427505493 0.0723919197916984558 0.823227524757385254 64 54 41
-0.0403013452887535095 0.0699049681425094604 0.821685731410980225 114 107 93
-0.0408139526844024658 0.0766744986176490784 0.821048617362976074 11 0 0
-0.0398881956934928894 0.0732833594083786011 0.832184851169586182 63 53 36
-0.0383218377828598022 0.0718986913561820984 0.824509024620056152 108 101 85
-0.0361798778176307678 0.0741996169090270996 0.82089543342590332 96 88 71
-0.0402695760130882263 0.0704340562224388123 0.833411812782287598 86 75 58
-0.0384069979190826416 0.0767692252993583679 0.833033382892608643 64 51 39
-0.0614588335156440735 0.0836288332939147949 0.784804165363311768 92 72 72
-0.0484051182866096497 0.0797206684947013855 0.804582715034484863 45 43 26
-0.0434624254703521729 0.078371584415435791 0.810833513736724854 73 64 48
-0.0153491776436567307 0.112713232636451721 0.824206888675689697 64 59 46
-0.0155820231884717941 0.117185503244400024 0.826440513134002686 109 104 89
-0.00885851867496967316 0.111908882856369019 0.826189935207366943 41 31 25
-0.0146625321358442307 0.115054652094841003 0.820342838764190674 60 51 42
-0.00725399516522884369 0.114010617136955261 0.821608424186706543 51 42 35
-0.0128850620239973068 0.11338450014591217 0.818654298782348633 37 31 29
-0.0108471047133207321 0.114477664232254028 0.822552740573883057 56 50 39
-0.00668597966432571411 0.112449735403060913 0.825529396533966064 32 26 19
-0.020014466717839241 0.113915994763374329 0.808796823024749756 20 10 1
-0.0315718650817871094 0.113332435488700867 0.798982441425323486 61 51 35
-0.0270178373903036118 0.113839030265808105 0.799582839012145996 41 37 31
-0.0308068711310625076 0.102978415787220001 0.821215450763702393 99 86 79
-0.035505339503288269 0.107976183295249939 0.803720831871032715 54 49 32
-0.0285767968744039536 0.109579294919967651 0.805564999580383301 45 32 25
-0.0345498770475387573 0.0993342399597167969 0.811349928379058838 53 39 36
-0.00113724730908870697 0.110782995820045471 0.682914972305297852 46 60 47
0.00210951268672943115 0.0749338939785957336 0.833598911762237549 240 200 146
0.0112669924274086952 0.0789097025990486145 0.83251267671585083 235 182 124
0.0127728274092078209 0.0832619220018386841 0.832577049732208252 229 174 116
0.0132748372852802277 0.0816152244806289673 0.832467854022979736 232 178 122
-0.0377298891544342041 -0.0153079479932785034 0.818309903144836426 255 247 239
-0.0361505821347236633 -0.0138844791799783707 0.819285273551940918 254 247 239
-0.0351611524820327759 -0.0110103636980056763 0.819040536880493164 253 247 239
-0.0384942963719367981 -0.00553498975932598114 0.820765197277069092 253 242 231
-0.0387943312525749207 -0.0100498609244823456 0.817590713500976562 253 247 238
-0.0315376296639442444 -0.00955663248896598816 0.819586217403411865 252 242 231
-0.0146691706031560898 0.00650150701403617859 0.824993729591369629 241 192 146
-0.016679203137755394 0.00848642736673355103 0.825243055820465088 242 195 149
-0.0175401847809553146 0.00712506286799907684 0.824240982532501221 240 195 152
-0.0234969388693571091 -0.012788861058652401 0.821123600006103516 253 226 196
-0.0217792447656393051 -0.0147722810506820679 0.821165561676025391 250 223 188
-0.0155044998973608017 -0.0216648038476705551 0.821966469287872314 247 212 172
-0.0144781935960054398 -0.0230002477765083313 0.822364747524261475 246 206 164
-0.0137657765299081802 -0.0202887598425149918 0.822699487209320068 249 215 171
-0.018475143238902092 -0.0291756279766559601 0.820550024509429932 245 206 158
-0.0202917624264955521 -0.0268464218825101852 0.819271445274353027 248 212 171
-0.0216087903827428818 -0.0305274873971939087 0.819193243980407715 243 206 164
-0.0178069230169057846 -0.0268116742372512817 0.820092141628265381 246 208 165
-0.0103762205690145493 -0.0249056890606880188 0.825004339218139648 242 190 139
-0.00967643596231937408 -0.0232965387403964996 0.825456738471984863 244 198 145
-0.0272908266633749008 -0.0121889999136328697 0.820209383964538574 254 234 215
-0.0105961691588163376 -0.0217645484954118729 0.824649155139923096 246 201 155
-0.00862590782344341278 -0.0203282702714204788 0.826019704341888428 245 201 152
-0.0258563477545976639 -0.0265835709869861603 0.818261981010437012 250 220 183
-0.0250730756670236588 -0.0292104166001081467 0.818427860736846924 254 218 180
-0.0242362823337316513 -0.0302672497928142548 0.818256556987762451 247 211 169
-0.0203122962266206741 -0.0331245064735412598 0.820215523242950439 240 203 153
-0.0257851127535104752 -0.0310088694095611572 0.818343043327331543 247 214 175
-0.0266206134110689163 -0.02789311483502388 0.817809343338012695 250 218 185
-0.0292380508035421371 -0.0297208502888679504 0.818075418472290039 251 225 193
-0.0285283904522657394 -0.0334722064435482025 0.818697929382324219 249 220 178
0.0182708036154508591 -0.0364037901163101196 0.851765573024749756 158 106 56
-0.0120362658053636551 -0.033960290253162384 0.837746024131774902 2 210 151
-0.00751142390072345734 -0.0363402999937534332 0.831529617309570312 187 119 64
-0.00868164189159870148 -0.0379229001700878143 0.831953227519989014 188 120 65
0.0016977265477180481 -0.00830801762640476227 0.855580270290374756 0 234 225
0.00192163139581680298 -0.0112966941669583321 0.856424212455749512 251 231 206
0.00257819704711437225 -0.0101128341630101204 0.848141193389892578 232 192 129
0.0170140713453292847 -0.0339298173785209656 0.858427643775939941 170 96 54
0.0140313245356082916 -0.0319498106837272644 0.85928642749786377 229 175 125
0.00762086920440196991 -0.0481736473739147186 0.841744422912597656 250 222 192
0.00663423165678977966 -0.0497036650776863098 0.841917991638183594 252 224 197
0.00729248486459255219 -0.0515495054423809052 0.841773629188537598 245 219 192
0.00785565562546253204 -0.0309621579945087433 0.849291801452636719 147 31 12
0.00744512677192687988 -0.0333472341299057007 0.851717591285705566 148 76 36
0.00605475157499313354 -0.0337674804031848907 0.852813243865966797 198 126 85
-0.000472892075777053833 0.0131619405001401901 0.839124858379364014 205 150 109
0.00290935859084129333 0.0116385575383901596 0.837089657783508301 214 160 107
0.00398396886885166168 0.0150570962578058243 0.836823940277099609 145 79 56
0.0138611998409032822 0.0212403964251279831 0.842108070850372314 251 223 192
0.0152276838198304176 0.0194802526384592056 0.840260207653045654 252 230 207
0.016862180083990097 0.0223270263522863388 0.840501248836517334 251 225 190
0.0167990047484636307 -0.00809861905872821808 0.852713465690612793 253 235 212
0.015950297936797142 -0.00541808083653450012 0.852523446083068848 253 234 215
0.016078997403383255 -0.00971953943371772766 0.853006601333618164 253 234 211
0.00737169943749904633 -0.00382552482187747955 0.846424400806427002 0 244 240
0.0124743040651082993 -0.00581152550876140594 0.842006921768188477 1 251 231
0.0120072076097130775 -0.00427138060331344604 0.847031772136688232 4 239 217
0.00836228020489215851 -0.00464842282235622406 0.85469663143157959 255 242 232
-0.00615292787551879883 0.0505269244313240051 0.838117003440856934 245 212 172
0.0185565799474716187 0.0572384744882583618 0.8343505859375 242 200 147
0.0219974331557750702 0.056897379457950592 0.833579599857330322 238 193 142
0.0140908826142549515 0.0561169832944869995 0.834612011909484863 240 200 144
0.0133576029911637306 0.0581722259521484375 0.834646821022033691 243 200 146
0.0155695807188749313 0.0605549290776252747 0.834560871124267578 239 198 144
0.0159237049520015717 0.0560885295271873474 0.83471214771270752 239 195 143
0.0125439101830124855 0.0666534453630447388 0.833148658275604248 243 201 146
0.00868252944201231003 0.0667475983500480652 0.833660423755645752 240 195 143
0.00816354434937238693 0.0638291537761688232 0.834587693214416504 238 198 148
-0.00683748722076416016 0.0662915334105491638 0.836971640586853027 244 202 153
-0.00959178619086742401 0.0666052922606468201 0.837031900882720947 240 202 153
-0.00961671210825443268 0.0681699588894844055 0.837351381778717041 240 198 151
0.00598988868296146393 0.0586744621396064758 0.834622383117675781 242 202 154
0.00616897828876972198 0.0557552576065063477 0.834696412086486816 246 204 154
0.0115518169477581978 0.0580512657761573792 0.834516406059265137 242 201 151
0.00788536015897989273 0.0525116398930549622 0.835744738578796387 241 201 155
0.00392990931868553162 0.0532615184783935547 0.83512800931930542 242 207 162
0.00603919103741645813 0.0535137355327606201 0.835282862186431885 241 204 156
0.00379672832787036896 0.0477058440446853638 0.838301658630371094 242 203 158
0.00697029568254947662 0.051816500723361969 0.836221456527709961 242 203 156
-0.000328043475747108459 0.0274124834686517715 0.83855438232421875 226 171 115
0.00355636142194271088 0.0347161665558815002 0.838513970375061035 217 173 121
0.00716807134449481964 0.0497395321726799011 0.836458146572113037 244 203 154
0.00269828550517559052 0.0524655207991600037 0.835724771022796631 246 209 163
-0.0026608295738697052 0.0508999601006507874 0.836714684963226318 242 209 167
-0.0064157731831073761 0.0523286759853363037 0.838317036628723145 244 211 170
-0.00607174262404441833 0.048573620617389679 0.837961912155151367 243 211 172
0.00976270996034145355 0.0551749095320701599 0.834955453872680664 241 200 152
0.0171885322779417038 0.0350110679864883423 0.841939866542816162 237 191 142
0.0140136424452066422 0.0330658704042434692 0.842358767986297607 239 197 151
0.0177999585866928101 0.0363626629114151001 0.84213787317276001 240 194 144
0.00178964808583259583 -0.00834618136286735535 0.851360023021697998 238 189 136
-0.0201212931424379349 0.0100273732095956802 0.827193319797515869 236 200 155
-0.0143470410257577896 0.00892787054181098938 0.826506316661834717 238 189 143
-0.0161464083939790726 0.0136273335665464401 0.835636317729949951 196 170 141
0.00580753572285175323 0.0362778976559638977 0.840822935104370117 194 145 92
0.0094036981463432312 0.0403187423944473267 0.843924283981323242 231 187 139
-0.00612709112465381622 -0.00887762196362018585 0.833339154720306396 243 210 152
-0.00135825388133525848 -0.0130958426743745804 0.834315598011016846 246 201 149
-0.000390378758311271667 -0.0151609126478433609 0.833993077278137207 242 197 137
-0.000506864860653877258 -0.0115361735224723816 0.837096691131591797 242 200 143
-0.000108791515231132507 -0.0129391327500343323 0.83540189266204834 251 206 144
-0.0132264848798513412 0.0106266532093286514 0.831944584846496582 201 149 116
-0.0124984439462423325 0.0119239930063486099 0.831762909889221191 178 129 109
-0.0128882434219121933 0.00990734435617923737 0.83226168155670166 207 159 111
-0.0598001778125762939 0.09191160649061203 0.774351239204406738 93 88 75
-0.0658298581838607788 0.0928815454244613647 0.766793608665466309 121 100 91
-0.0709265321493148804 0.0789561942219734192 0.771768152713775635 107 90 78
-0.0639859288930892944 0.0634683817625045776 0.789775192737579346 66 57 46
-0.066987358033657074 0.0636005401611328125 0.788236379623413086 83 69 59
-0.0664719715714454651 0.0626978501677513123 0.793464124202728271 72 59 47
-0.063076317310333252 0.0580379515886306763 0.793554484844207764 47 40 31
-0.0651615187525749207 0.0543365105986595154 0.795494794845581055 46 35 27
-0.0629454180598258972 0.0541834086179733276 0.797263860702514648 40 35 23
-0.0697163194417953491 0.0591399669647216797 0.786050975322723389 75 67 51
-0.0561791211366653442 0.0504960194230079651 0.801264643669128418 0 0 0
-0.0512324497103691101 0.0197342727333307266 0.80651402473449707 77 63 43
-0.0536801815032958984 0.0176396723836660385 0.80496591329574585 117 88 71
-0.0522198975086212158 0.0167489256709814072 0.804177522659301758 89 60 51
-0.0565811172127723694 0.0130240749567747116 0.802956521511077881 60 40 30
-0.0504266247153282166 0.0330136716365814209 0.820365726947784424 67 53 37
-0.047123447060585022 0.0331547781825065613 0.820721745491027832 50 31 23
-0.054633118212223053 0.0303502026945352554 0.812257170677185059 87 61 24
-0.0565906539559364319 0.0274103675037622452 0.812750935554504395 84 68 52
-0.0572159662842750549 0.0258489418774843216 0.8118438720703125 95 76 62
-0.0559216365218162537 0.0330912768840789795 0.794509410858154297 69 48 33
-0.0589005351066589355 0.0229657161980867386 0.790990293025970459 99 68 40
-0.0580225437879562378 0.0260899048298597336 0.792860209941864014 84 56 25
-0.0605843216180801392 -0.00283590890467166901 0.784604668617248535 131 94 57
-0.0648081675171852112 0.00653121247887611389 0.779714345932006836 93 74 55
-0.0562597811222076416 0.0240861121565103531 0.797500371932983398 158 106 64
-0.0570292100310325623 0.0195896048098802567 0.793601751327514648 181 136 73
-0.0632323101162910461 0.0578286200761795044 0.799074411392211914 36 23 19
-0.0611271262168884277 0.0563654229044914246 0.80301898717880249 35 24 17
-0.0637725815176963806 0.0661289319396018982 0.789422392845153809 74 69 63
-0.063172660768032074 0.0680593326687812805 0.788904249668121338 85 73 61
-0.0514598935842514038 0.0491924360394477844 0.823339641094207764 92 80 66
-0.0542654991149902344 0.0490418747067451477 0.821775555610656738 107 88 77
-0.0549749806523323059 0.0506160035729408264 0.817288577556610107 87 76 69
-0.0503435879945755005 0.0420855581760406494 0.818290770053863525 103 109 72
-0.0545553788542747498 0.0390551462769508362 0.819696784019470215 91 80 59
-0.0535568669438362122 0.040766492486000061 0.819789707660675049 79 68 53
-0.0524304434657096863 0.0438521206378936768 0.8218192458152771 91 70 57
-0.0489312857389450073 0.0465513989329338074 0.821795642375946045 48 52 28
-0.0484063774347305298 0.0419296994805335999 0.822694480419158936 79 66 56
-0.0527109727263450623 0.0341882482171058655 0.816484570503234863 74 56 38
-0.0528336018323898315 0.0328509807586669922 0.816367030143737793 77 59 43
-0.0504687130451202393 0.0299940314143896103 0.81125718355178833 121 120 90
-0.0543113052845001221 0.0284295398741960526 0.814480960369110107 83 66 50
-0.057872481644153595 0.0383802801370620728 0.810517966747283936 89 71 44
-0.0495725274085998535 0.0344993323087692261 0.821015894412994385 65 52 36
-0.0491615235805511475 0.0399001315236091614 0.818359553813934326 48 38 9
-0.0476109087467193604 0.0416390150785446167 0.827991783618927002 65 51 43
-0.0463646724820137024 0.0366057902574539185 0.820973634719848633 44 36 29
-0.0487483888864517212 0.0371607542037963867 0.823096275329589844 65 53 39
-0.0466259494423866272 0.034284740686416626 0.816794097423553467 3 0 0
-0.0476723387837409973 0.0613563805818557739 0.817560255527496338 93 88 77
-0.0491169840097427368 0.0555785298347473145 0.815282821655273438 122 113 91
-0.0489582419395446777 0.050840429961681366 0.827152490615844727 73 59 49
-0.0333306938409805298 0.0666474401950836182 0.823211431503295898 52 17 3
-0.0279112551361322403 0.0707781240344047546 0.822867155075073242 93 45 26
-0.0371187999844551086 0.0665730088949203491 0.824315845966339111 116 106 87
-0.0355775505304336548 0.0725739374756813049 0.823229610919952393 94 87 76
-0.0406571030616760254 0.0541392490267753601 0.826303482055664062 68 58 62
-0.0402064025402069092 0.0533128082752227783 0.829811215400695801 106 88 75
-0.0398165211081504822 0.049348585307598114 0.829279124736785889 53 32 23
-0.040406450629234314 0.0569013431668281555 0.827291667461395264 103 87 79
-0.0441475957632064819 0.0599278509616851807 0.831457257270812988 64 54 42
-0.0352455154061317444 0.0613588616251945496 0.823434114456176758 67 24 10
-0.0391137450933456421 0.0579454675316810608 0.828193128108978271 120 114 97
-0.038201846182346344 0.0523739978671073914 0.822652876377105713 56 45 18
0.00426615588366985321 0.0148907322436571121 0.839004755020141602 219 161 105
0.00671896152198314667 0.0190183613449335098 0.841139793395996094 215 157 100
0.00666321627795696259 0.0211936961859464645 0.839894115924835205 216 156 101
0.00674938969314098358 0.0142238382250070572 0.845168054103851318 225 173 117
0.0111707653850317001 0.0120053496211767197 0.839337408542633057 6 240 175
0.0085477679967880249 0.0119061935693025589 0.84594273567199707 234 183 132
-0.0401883125305175781 0.0408501699566841125 0.827269077301025391 66 38 28
-0.0405590012669563293 0.0424061492085456848 0.826783657073974609 65 45 23
-0.037403985857963562 0.038272857666015625 0.824611186981201172 106 70 45
-0.0358648002147674561 0.0512608513236045837 0.824716687202453613 114 70 37
-0.035695202648639679 0.0496094599366188049 0.824710667133331299 123 86 55
-0.0264720786362886429 0.0512267723679542542 0.830491125583648682 220 168 118
-0.0255613159388303757 0.0513221025466918945 0.831988096237182617 223 170 121
-0.0247746538370847702 0.0492145344614982605 0.833232760429382324 225 180 134
-0.0241355393081903458 0.0443376451730728149 0.833827376365661621 180 144 120
-0.0284109693020582199 0.0431938469409942627 0.834237873554229736 170 134 104
-0.0190091896802186966 0.0886746719479560852 0.823928594589233398 22 6 0
-0.013672197237610817 0.0906766131520271301 0.826022088527679443 48 28 15
-0.0103664156049489975 0.090179741382598877 0.827476084232330322 92 60 36
-0.0206286739557981491 0.0889284610748291016 0.83154761791229248 16 13 5
-0.0200290624052286148 0.10048888623714447 0.8179360032081604 19 2 0
-0.0248821508139371872 0.1135406494140625 0.806281030178070068 48 44 30
-0.0230976957827806473 0.112827479839324951 0.807237446308135986 30 9 6
-0.0222944226115942001 0.114820986986160278 0.806946992874145508 44 40 26
0.00706648640334606171 0.0772269889712333679 0.832818567752838135 236 186 130
0.00549177825450897217 0.0774198397994041443 0.832795798778533936 234 187 131
-0.00033826194703578949 0.0755842253565788269 0.8336181640625 238 195 140
-0.00340290740132331848 0.077282145619392395 0.83395540714263916 237 188 138
-0.00195072218775749207 0.0761179700493812561 0.834080755710601807 241 195 145
-0.00349340029060840607 0.0790122747421264648 0.83452153205871582 238 191 136
-0.00149837881326675415 0.0790588632225990295 0.834033310413360596 240 193 138
-0.00520108640193939209 0.0818191245198249817 0.833029448986053467 230 172 111
-0.00706929713487625122 0.0791790783405303955 0.834343850612640381 231 183 123
-0.00366053543984889984 0.0810124501585960388 0.833855152130126953 226 172 117
-0.0199804585427045822 0.0687590539455413818 0.829931020736694336 210 148 98
-0.0129064638167619705 0.0748528614640235901 0.833219051361083984 224 167 112
-0.0228698570281267166 0.0872314125299453735 0.826042652130126953 9 7 2
-0.022600049152970314 0.0861628353595733643 0.825005650520324707 27 15 5
-0.0250869747251272202 0.0903980061411857605 0.821913659572601318 72 60 48
-0.0250920038670301437 0.0829860568046569824 0.827916502952575684 16 7 0
-0.00745407305657863617 0.0925232470035552979 0.830614686012268066 69 34 18
-0.00634774565696716309 0.0946319922804832458 0.829562246799468994 26 33 22
-0.00472942180931568146 0.0931909456849098206 0.830639064311981201 81 40 25
-0.0406496003270149231 -0.0496205650269985199 0.804626584053039551 250 232 210
-0.0492992401123046875 0.00251986831426620483 0.814000487327575684 131 95 61
-0.0505681335926055908 0.00464642234146595001 0.811255216598510742 94 72 53
-0.0481703579425811768 0.000440958887338638306 0.815092384815216064 184 141 102
-0.000244725495576858521 0.0102327633649110794 0.839730024337768555 213 156 111
-0.000228138640522956848 0.0131306294351816177 0.836638987064361572 196 150 109
-0.0016688518226146698 0.00976002588868141174 0.839033842086791992 216 158 115
-0.0315271317958831787 -0.00762051157653331757 0.820081055164337158 253 240 227
-0.0136904511600732803 0.0162306968122720718 0.827171623706817627 32 26 26
-0.0163315366953611374 0.0163039062172174454 0.822885096073150635 217 197 159
-0.0153672192245721817 0.0145002584904432297 0.819551169872283936 251 201 158
-0.030026635155081749 -0.00475098378956317902 0.822083532810211182 254 236 220
-0.0297074820846319199 -0.00608175154775381088 0.821258723735809326 253 238 221
-0.0294544342905282974 -0.00845034979283809662 0.820067405700683594 252 236 223
-0.0193068180233240128 -0.00917686242610216141 0.824083566665649414 250 219 180
-0.0122715290635824203 -0.0164175033569335938 0.824047207832336426 244 212 170
-0.0083777252584695816 -0.00777655467391014099 0.833588957786560059 247 216 174
-0.0515421926975250244 0.0352961122989654541 0.819907903671264648 72 56 41
-0.0497011244297027588 0.0310273338109254837 0.816460490226745605 68 48 41
-0.0483854338526725769 0.0316624566912651062 0.820159256458282471 59 41 29
-0.0549750626087188721 0.0253737252205610275 0.811634838581085205 71 57 42
-0.0552770495414733887 0.023314284160733223 0.810479819774627686 63 50 41
-0.0557413548231124878 0.0187788326293230057 0.811311721801757812 86 63 42
-0.0526380762457847595 0.0204024259001016617 0.806592106819152832 114 90 75
-0.0512759312987327576 0.0274088848382234573 0.820893228054046631 68 54 38
-0.0497610792517662048 0.0244617778807878494 0.808446645736694336 73 52 29
-0.048357836902141571 0.0297075677663087845 0.81592249870300293 17 8 0
-0.0489667728543281555 0.0241900552064180374 0.811706483364105225 67 58 38
-0.0505855455994606018 0.015753990039229393 0.808667778968811035 67 46 37
-0.0495617017149925232 0.0208754893392324448 0.81067359447479248 65 52 32
-0.0517007634043693542 0.0160163324326276779 0.804909169673919678 71 49 35
-0.0525351688265800476 0.00966374576091766357 0.81737208366394043 72 50 37
-0.0480546355247497559 0.0123690199106931686 0.808702945709228516 93 65 46
-0.0476016178727149963 0.0135723929852247238 0.811069250106811523 92 60 38
-0.0446303710341453552 0.0188781265169382095 0.817984402179718018 102 72 55
-0.0466106459498405457 0.0178055856376886368 0.814091682434082031 77 52 38
-0.0453583002090454102 0.0165709387511014938 0.815447449684143066 99 64 48
-0.0396147742867469788 0.00291866250336170197 0.818817019462585449 250 222 196
-0.0404151752591133118 -0.00137956812977790833 0.820571541786193848 250 231 199
-0.0329045429825782776 0.037301190197467804 0.828263401985168457 168 128 101
-0.0331405103206634521 0.0377645418047904968 0.826625466346740723 171 118 90
-0.0341087877750396729 0.0346963107585906982 0.826789021492004395 177 136 105
-0.0502017438411712646 -0.0296418238431215286 0.803477883338928223 246 210 169
-0.0569280162453651428 -0.0209569670259952545 0.798182964324951172 98 60 37
-0.0531983748078346252 -0.030463140457868576 0.790825128555297852 186 144 111
-0.0745027735829353333 0.0402550026774406433 0.770946800708770752 62 52 43
-0.0711515769362449646 0.0418858304619789124 0.768179118633270264 50 40 30
-0.0657220333814620972 0.0465827956795692444 0.784939408302307129 38 59 16
-0.0816036239266395569 -0.00780360307544469833 0.718364357948303223 80 65 52
-0.0705590248107910156 -0.0133271533995866776 0.760919511318206787 187 144 98
-0.0731001496315002441 -0.0142028015106916428 0.759544670581817627 173 164 129
-0.0694679170846939087 -0.0172724798321723938 0.757843136787414551 187 145 21
-0.069199293851852417 0.0200372207909822464 0.746880292892456055 28 20 5
-0.0705291926860809326 0.0271687228232622147 0.757501542568206787 0 0 0
-0.069574892520904541 0.0221853833645582199 0.752502381801605225 26 16 10
-0.0654228106141090393 0.0466776788234710693 0.787383556365966797 52 45 24
-0.0781617388129234314 0.0524709373712539673 0.729617416858673096 175 179 147
-0.0617497712373733521 -0.00415426306426525116 0.721437215805053711 250 210 146
-0.0682461410760879517 -0.00100275129079818726 0.725514769554138184 247 193 155
-0.0670325830578804016 -0.00178015604615211487 0.728180766105651855 241 202 154
-0.0462999343872070312 0.0123170074075460434 0.689145147800445557 24 205 80
-0.0744172930717468262 0.0474692508578300476 0.768706381320953369 65 52 40
-0.0719613656401634216 0.0323674604296684265 0.765153646469116211 55 53 34
-0.0704273805022239685 0.0309616569429636002 0.775507807731628418 48 42 22
-0.0711514577269554138 0.0322121158242225647 0.77351987361907959 38 29 25
-0.0516989156603813171 0.0427040532231330872 0.815684974193572998 193 141 123
-0.066805519163608551 0.0304140057414770126 0.783245742321014404 84 66 52
-0.0677438676357269287 0.0328782796859741211 0.781735241413116455 33 37 24
-0.0708010420203208923 0.0338981449604034424 0.77735590934753418 37 31 18
-0.0704288780689239502 0.0305246654897928238 0.770410597324371338 42 40 25
-0.0708551034331321716 0.0261072423309087753 0.779447853565216064 66 58 43
-0.0689193680882453918 0.015450039878487587 0.772213339805603027 97 80 57
-0.075202159583568573 0.0192843768745660782 0.761041581630706787 80 70 48
-0.0745152384042739868 0.0227402318269014359 0.754942715167999268 39 28 17
-0.0629343390464782715 0.0542312264442443848 0.806643843650817871 58 43 36
-0.0609046295285224915 -0.0012647826224565506 0.789579331874847412 119 93 68
-0.0603760853409767151 -0.00461047329008579254 0.787381887435913086 133 95 67
-0.0583447813987731934 0.0105750765651464462 0.798799633979797363 64 54 36
-0.0507167205214500427 -0.0230132974684238434 0.803916633129119873 233 193 149
-0.0539848208427429199 -0.0244792904704809189 0.800340831279754639 177 130 101
-0.0563204437494277954 -0.019723718985915184 0.799640834331512451 106 69 39
-0.0663523450493812561 -0.0131782125681638718 0.775120258331298828 149 126 97
-0.0583296045660972595 -0.0305304601788520813 0.724002957344055176 23 17 1
-0.0666975528001785278 -0.015732569620013237 0.723264098167419434 22 14 7
-0.060505397617816925 -0.016711108386516571 0.765989840030670166 226 238 206
-0.0779750347137451172 0.0532736778259277344 0.76372915506362915 54 46 28
-0.0801834613084793091 0.0485173910856246948 0.759881436824798584 51 50 32
-0.0723823457956314087 0.0425352230668067932 0.776807904243469238 57 51 40
-0.0653643161058425903 0.0167367178946733475 0.752859830856323242 12 9 6
-0.0643475651741027832 -0.0322799421846866608 0.778358280658721924 77 61 40
-0.06834450364112854 -0.0299240276217460632 0.77576977014541626 115 74 68
-0.0656675621867179871 -0.029440663754940033 0.777029514312744141 83 43 32
-0.0621469020843505859 -0.0269058644771575928 0.769030272960662842 128 104 74
-0.0584301352500915527 -0.0078787701204419136 0.74308931827545166 209 155 89
-0.0639350190758705139 -0.00966321025043725967 0.756155848503112793 246 166 131
-0.0582698062062263489 -0.00653687212616205215 0.746246278285980225 205 132 100
-0.0638661682605743408 -0.0460282638669013977 0.775777816772460938 89 61 39
-0.078326888382434845 -0.0214311592280864716 0.709269285202026367 114 97 93
-0.0753914862871170044 -0.0212056506425142288 0.713020086288452148 163 142 155
-0.0859112069010734558 0.0196553636342287064 0.720767974853515625 206 206 183
-0.0614454001188278198 -0.027286771684885025 0.725525021553039551 24 19 14
-0.0692861974239349365 0.0456238463521003723 0.782261908054351807 35 18 22
-0.073156796395778656 0.0460400879383087158 0.776992380619049072 69 58 46
-0.0693290606141090393 0.0138242188841104507 0.769445478916168213 103 78 52
-0.0639666169881820679 0.0142849292606115341 0.770804047584533691 77 120 79
-0.0757510736584663391 0.0170476976782083511 0.73819422721862793 116 84 55
-0.0817345082759857178 0.0123786609619855881 0.734522819519042969 93 83 50
-0.0700463950634002686 0.000391094014048576355 0.769629418849945068 107 96 62
-0.0602115094661712646 -0.00666803121566772461 0.758228123188018799 185 144 103
-0.0601643994450569153 -0.00302269868552684784 0.714160799980163574 3 189 78
-0.0630246922373771667 -0.00186180509626865387 0.727240085601806641 225 189 129
